x,y,z
15.218,10.109,5.874
15.375,9.954,5.442
15.244,10.189,5.76
15.916,9.912,4.63
15.468,9.286,3.982
15.637,10.437,4.998
14.868,9.276,4.644
15.299,10.381,5.15
14.534,10.072,4.949
13.224,9.964,5.006
14.583,10.376,5.531
14.342,9.788,4.832
14.6,10.995,5.594
15.417,9.985,3.73
15.507,10.048,4.973
14.194,9.782,5.429
16.128,10.308,5.793
14.048,10.038,5.624
14.294,10.436,5.351
14.705,8.595,5.142
14.989,9.849,4.691
14.425,10.689,4.81
14.628,10.563,5.397
13.722,9.48,6.086
15.766,10.438,5.545
15.264,10.119,4.597
14.671,10.09,5.32
14.667,9.859,5.184
15.139,9.871,3.83
15.219,9.423,4.697
15.704,9.873,4.954
14.06,10.116,5.553
14.572,8.92,5.231
15.55,9.043,5.29
15.764,10.208,5.432
14.259,9.658,5.239
15.968,10.497,4.739
14.669,11.13,5.9
14.72,9.614,4.881
16.04,10.47,5.271
14.369,10.367,6.502
14.847,9.999,4.812
14.854,11.701,4.334
13.905,9.829,5.361
14.952,11.28,4.276
14.376,11.142,5.91
15.151,9.564,5.375
15.154,10.211,5.17
15.422,9.306,6.95
15.42,10.206,5.028
15.014,10.605,5.633
14.665,10.846,4.492
14.811,10.221,5.216
15.244,9.585,4.854
15.077,10.995,5.788
15.889,8.776,5.364
14.35,9.125,4.776
13.916,10.231,5.326
14.772,10.532,5.86
15.181,10.215,4.257
14.465,10.052,5.717
14.618,9.603,4.876
14.682,9.084,5.195
14.946,9.563,5.783
14.95,9.886,4.389
15.571,10.932,5.065
15.433,10.12,4.126
13.993,10.234,5.198
15.638,11.028,5.515
14.02,9.704,5.425
14.601,9.548,5.222
15.957,9.435,5.504
14.959,10.066,4.885
14.77,10.062,5.288
15.707,9.769,4.054
15.085,10.126,5.645
14.93,9.821,4.897
14.896,9.657,4.284
14.386,10.835,4.645
14.218,9.759,5.263
14.74,11.133,5.685
14.62,9.735,5.223
15.162,10.795,4.665
14.956,10.226,5.254
14.669,10.669,6.4
15.247,9.668,5.187
15.017,10.946,4.264
15.277,10.626,4.83
14.595,9.945,4.951
14.522,10.686,4.65
14.559,10.488,3.816
15.639,9.917,4.71
14.098,10.028,3.846
14.583,9.973,3.231
14.205,9.523,5.072
13.909,9.495,5.011
15.459,9.326,5.638
15.944,9.88,4.782
14.335,10.224,5.039
15.609,10.319,5.505
14.51,9.265,4.912
14.514,10.765,5.529
15.504,11.034,4.867
14.722,8.799,4.215
15.224,10.161,5.591
13.663,8.896,4.51
14.934,9.851,5.051
13.948,9.982,5.03
13.951,10.613,5.596
15.502,10.267,4.454
15.092,11.118,5.169
14.742,10.757,5.295
14.822,9.79,5.586
14.636,9.772,4.866
15.443,9.166,6.16
14.407,9.012,5.797
14.758,9.631,5.485
15.177,10.279,5.274
14.321,10.537,5.255
14.566,10.084,4.641
14.979,10.582,5.36
15.684,9.771,4.456
14.714,9.823,5.425
14.414,9.671,4.778
14.836,10.769,5.521
14.87,9.399,5.238
14.191,9.204,4.785
15.114,10.23,4.768
14.909,10.517,4.682
15.581,10.36,5.517
13.964,10.561,5.488
14.498,9.908,5.056
13.513,8.813,5.12
15.483,11.036,4.291
15.6,10.153,4.676
14.166,10.696,4.284
14.985,10.648,4.615
13.95,9.968,5.601
15.231,9.412,5.018
14.681,9.796,4.327
15.017,10.297,4.864
14.189,10.251,5.103
15.477,10.076,5.163
14.872,9.578,5.131
14.678,10.065,4.844
14.264,10.416,4.082
15.297,10.047,5.798
14.416,11.047,5.428
15.277,9.784,4.909
16.023,10.928,4.885
14.829,10.378,6.2
15.292,10.53,4.901
14.262,9.666,4.494
14.972,9.873,4.92
14.207,9.64,4.752
15.045,10.426,4.544
14.625,9.748,4.95
14.36,10.988,4.327
14.525,10.068,5.004
14.717,9.832,5.345
15.584,10.167,4.656
14.71,9.851,3.828
14.611,9.842,4.536
15.504,11.523,4.798
15.351,10.636,4.302
15.024,9.436,4.851
15.033,9.409,6.483
16.229,9.276,4.947
15.565,10.559,3.775
15.131,8.856,5.702
15.302,11.084,4.079
14.85,9.708,4.607
15.501,10.216,4.719
15.771,11.337,4.39
14.97,10.453,5.892
14.439,10.462,3.603
15.153,10.151,4.431
15.125,9.458,5.856
14.356,11.025,5.736
15.132,9.686,4.882
14.873,9.666,4.58
14.681,10.193,5.698
14.624,10.198,5.628
15.262,9.178,4.821
15.024,10.453,5.321
15.254,9.958,5.107
14.143,9.705,4.602
14.623,10.66,4.226
15.321,9.061,4.634
16.15,11.012,5.725
14.644,10.151,5.949
14.945,10.288,5.277
15.251,9.526,5.812
16.461,9.849,4.709
14.422,9.385,4.541
16.615,9.818,4.884
14.59,10.292,4.295
15.543,11.574,5.077
15.574,10.643,5.463
13.912,8.756,5.155
15.386,10.853,5.32
15.295,9.297,5.731
15.374,10.905,6.523
14.349,9.317,5.252
14.27,10.925,3.929
15.173,8.931,4.601
15.135,9.877,5.413
15.298,10.255,4.829
14.913,10.488,4.29
16.051,11.41,5.099
15.691,9.548,5.691
13.685,10.59,5.479
15.745,9.808,4.994
15.079,9.656,5.369
14.171,9.788,4.661
14.306,10.483,4.772
14.573,9.017,4.216
15.483,9.414,5.886
14.69,10.189,4.311
15.46,10.005,5.013
15.349,9.952,4.072
15.08,10.572,5.376
14.822,10.259,4.667
15.556,10.718,5.775
14.105,10.043,5.323
14.873,9.141,5.115
14.821,9.937,5.273
14.906,8.428,5.198
14.574,9.683,5.418
15.601,10.223,4.968
15.317,10.575,4.815
15.337,10.664,4.914
14.266,9.613,4.973
16.429,9.781,4.492
15.711,8.822,4.857
14.813,10.431,4.827
14.345,10.212,4.437
15.341,9.782,5.078
14.212,9.75,4.485
14.98,9.396,5.086
14.237,10.28,4.817
14.941,10.134,4.972
15.628,9.219,4.478
14.923,10.514,5.495
16.136,11.272,4.799
15.452,9.914,4.551
15.265,10.03,5.231
15.39,9.436,3.636
15.315,9.176,5.424
15.536,10.658,4.27
15.884,10.762,5.439
14.145,9.743,4.226
16.18,10.401,4.066
15.272,9.505,4.733
15.793,9.826,5.137
14.371,10.286,4.847
14.74,9.326,5.536
14.098,9.419,6.461
15.161,10.497,5.198
14.888,10.384,5.015
14.678,8.623,5.559
14.926,9.546,4.755
15.648,10.241,4.978
15.67,9.411,4.969
15.696,9.688,4.16
15.185,10.696,4.873
15.25,10.458,5.587
15.386,10.782,5.034
14.929,10.177,4.995
13.602,9.58,4.935
15.99,9.312,4.723
15.009,10.76,5.254
15.109,10.26,5.271
15.459,10.964,5.615
14.845,9.371,4.035
15.109,9.419,4.528
14.987,10.36,4.21
14.43,10.3,4.884
14.28,9.417,4.459
15.545,9.345,4.979
14.129,10.575,5.396
15.825,9.386,4.51
14.371,10.19,4.701
15.903,9.188,4.791
14.227,10.325,4.943
13.473,10.51,4.514
15.218,10.602,5.483
15.166,9.517,4.365
15.578,9.428,5.15
16.045,10.674,4.861
15.354,10.179,4.444
14.552,10.405,4.321
16.353,10.185,5.069
14.525,10.551,4.825
15.117,9.947,5.586
15.525,9.384,5.419
15.302,9.851,4.306
14.076,9.687,5.453
15.313,11.369,5.374
15.109,9.505,4.379
15.031,10.393,5.615
15.759,9.799,4.499
15.089,10.515,5.376
14.675,9.847,4.369
14.192,11.034,5.168
15.623,10.22,6.075
15.069,9.602,4.592
14.792,9.885,6.021
15.543,10.076,5.651
14.778,9.506,5.224
15.753,10.838,5.538
14.396,10.809,4.82
15.702,11.134,3.959
14.912,10.338,5.093
14.069,9.533,4.324
14.65,9.776,4.357
14.743,9.042,5.837
15.794,8.477,4.378
15.206,8.455,5.02
14.864,9.569,5.648
14.302,10.816,4.841
15.083,9.762,5.734
15.573,9.04,5.263
15.184,9.966,6.027
16.074,11.145,5.152
14.393,9.117,5.358
14.334,10.716,5.015
15.26,9.306,4.588
14.793,10.19,5.46
13.923,9.193,4.153
15.064,10.106,6.172
14.676,10.341,5.395
15.574,10.649,5.721
15.443,9.672,3.959
15.374,9.183,4.7
15.872,9.662,4.729
15.923,9.731,3.954
15.705,9.513,5.493
14.644,10.648,4.848
16.425,10.094,5.363
15.104,10.765,4.989
15.671,9.705,4.803
15.816,10.698,5.41
14.868,9.823,5.382
14.376,10.488,4.826
15.166,10.256,6.219
15.94,10.194,4.98
15.019,9.788,4.976
14.838,10.85,6.056
15.423,10.891,4.273
15.531,9.756,3.791
15.052,9.819,5.13
15.09,10.65,4.655
15.283,9.938,4.028
14.566,9.438,4.846
15.165,9.592,5.15
14.889,9.665,5.252
15.982,9.276,5.438
13.589,9.576,5.388
15.549,10.143,5.431
15.083,10.143,5.537
15.488,10.221,4.483
14.247,10.39,5.991
14.554,9.843,5.751
14.556,10.117,4.694
14.897,9.717,5.031
15.736,10.4,4.837
14.027,9.537,4.756
15.627,10.402,5.28
14.813,10.274,4.775
15.176,9.562,4.774
14.965,10.311,5.375
15.324,9.308,5.692
14.547,9.738,4.489
14.841,9.727,4.927
14.902,8.96,4.853
14.71,9.875,5.571
14.886,11.031,4.961
14.212,10.013,5.933
15.692,10.568,5.513
14.803,8.982,5.5
15.342,10.101,5.248
14.716,10.544,5.217
14.686,10.318,4.045
15.474,10.723,4.271
14.96,9.341,6.126
15.012,9.391,5.594
15.161,9.631,6.006
16.333,10.746,4.314
14.217,10.094,5.95
13.653,10.245,6.436
14.043,9.835,5.422
13.702,10.931,5.026
14.617,10.094,5.269
13.26,9.873,5.759
15.58,10.074,4.626
15.107,9.251,4.473
15.02,10.576,5.213
13.145,10.207,3.679
15.959,10.035,4.259
14.681,9.469,5.806
15.113,9.572,4.409
14.796,8.814,5.854
16.12,9.593,5.005
15.847,9.472,4.488
14.866,10.461,5.212
14.495,10.486,5.178
15.105,10.397,5.955
15.2,9.803,4.306
15.493,9.995,4.955
15.58,9.438,5.104
14.357,10.754,5.404
14.904,9.07,4.956
14.61,10.192,4.302
15.252,10.447,4.653
14.798,10.853,3.999
14.894,10.212,5.243
14.224,10.576,5.266
14.861,9.958,4.878
14.552,10.544,5.699
14.446,9.564,4.572
14.532,10.441,4.563
15.328,9.529,5.296
14.441,10.181,4.334
15.243,9.551,5.327
13.759,10.097,5.727
14.643,8.735,4.771
15.376,10.775,4.147
14.952,10.748,4.256
14.623,10.373,3.82
15.558,9.926,3.99
15.198,9.596,5.223
15.995,11.106,5.079
15.018,9.543,3.726
15.111,9.648,4.31
14.884,10.148,4.878
15.619,10.001,4.48
14.558,9.253,5.308
15.72,9.427,5.188
14.324,9.992,4.554
14.871,10.596,5.41
15.71,9.593,4.56
14.765,10.738,5.085
13.849,9.915,5.009
14.265,10.535,5.48
14.626,8.816,4.777
14.613,10.884,5.243
14.862,9.89,4.797
15.631,9.647,5.489
15.121,10.318,4.958
15.407,9.673,4.391
15.237,9.473,5.412
13.996,10.482,5.251
15.331,9.473,4.781
14.542,9.845,4.994
15.08,9.194,4.663
15.002,9.834,5.194
15.606,10.141,4.306
15.193,10.484,5.56
15.907,10.845,4.551
15.838,9.87,4.365
15.157,10.049,5.138
15.698,9.61,4.539
15.2,10.507,5.662
15.707,10.575,4.503
15.299,8.933,4.561
14.007,10.081,5.276
14.996,10.4,5.382
15.21,10.137,5.326
15.386,10.651,5.508
15.739,10.596,5.106
15.064,9.516,6.138
14.635,9.728,5.303
14.949,10.509,5.563
14.881,11.535,5.547
14.254,10.277,5.751
15.361,9.749,4.815
15.038,10.808,5.799
15.486,10.791,4.957
14.58,10.514,4.062
14.862,9.258,5.299
13.976,9.335,5.034
14.708,11.044,5.041
14.003,10.622,5.25
14.435,9.817,4.986
13.599,9.221,5.07
13.976,9.49,4.88
13.4,9.918,6.126
15.253,9.4,5.447
14.63,9.62,4.799
13.94,10.092,5.333
15.95,10.005,5.654
15.581,9.771,4.178
14.266,10.803,3.945
14.726,9.87,5.173
14.092,9.97,4.37
15.551,9.691,5.387
15.767,10.012,4.415
15.523,10.767,4.491
14.557,9.491,5.175
14.157,8.538,4.855
14.9,10.038,5.508
14.801,9.975,5.527
13.75,11.165,4.711
15.587,9.902,4.365
14.393,9.403,4.506
15.798,9.82,4.782
14.299,10.02,5.035
15.337,9.139,4.619
15.339,9.556,5.3
14.503,9.467,4.759
15.118,10.754,6.03
15.397,10.565,5.364
15.076,10.06,5.24
15.321,10.901,4.592
15.735,10.201,3.845
14.684,10.232,4.886
16.249,9.609,4.429
14.93,10.772,4.449
14.943,10.46,5.042
14.45,9.617,4.827
15.286,9.82,5.625
14.857,8.854,5.557
15.115,10.642,4.187
15.929,9.973,5.927
14.612,10.532,4.268
15.656,11.057,6.356
15.041,9.143,5.012
14.526,9.842,5.726
16.028,10.274,3.324
16.217,11.19,4.796
13.488,10.065,5.726
15.831,10.285,5.403
14.179,10.818,6.856
15.168,9.959,5.557
14.77,9.358,4.206
15.138,9.94,5.35
15.864,10.396,4.905
14.369,11.714,5.186
15.048,9.579,3.677
14.902,10.511,5.534
14.849,10.459,3.897
14.443,10.507,5.043
15.446,10.452,4.82
14.465,10.227,4.465
14.564,10.735,5.261
14.363,9.361,5.064
15.937,9.685,5.579
15.475,9.779,4.08
14.588,9.954,4.695
35.03,19.052,6.242
35.318,19.843,5.074
34.747,20.429,5.567
35.266,19.301,4.963
36.0,20.077,4.796
36.36,19.34,4.971
34.401,19.926,5.1
34.361,20.309,5.882
35.643,20.308,6.157
35.612,21.118,6.652
35.107,19.599,4.565
36.156,19.955,5.587
33.897,19.924,6.244
35.542,19.937,5.281
34.817,20.467,5.688
33.17,20.261,6.305
34.973,19.626,5.798
34.721,19.518,6.059
34.146,19.567,5.884
34.235,20.23,5.879
34.795,20.634,6.499
34.774,18.98,5.391
35.469,20.8,5.965
34.908,21.036,6.323
34.133,19.382,5.363
34.912,20.015,6.77
34.612,19.069,5.559
35.263,19.599,6.122
35.468,19.925,5.549
34.612,20.147,5.459
34.642,19.289,5.515
34.795,19.946,7.159
35.059,20.371,5.407
35.437,20.157,6.888
34.727,19.348,5.382
34.238,19.829,6.722
35.27,20.327,5.639
35.251,20.794,4.817
34.342,20.778,6.116
34.58,20.118,6.236
34.599,20.158,5.94
35.949,20.321,5.946
34.869,20.05,6.134
35.275,19.362,6.129
34.528,20.041,5.513
35.584,20.289,6.579
34.994,20.145,6.187
35.704,19.48,6.187
34.741,20.105,6.324
34.599,20.6,7.002
35.707,20.305,6.178
34.794,19.48,6.79
33.889,19.726,6.568
35.32,17.604,5.308
35.243,19.571,5.946
35.686,19.662,5.042
36.397,19.616,4.852
34.47,20.342,6.196
33.791,20.358,5.873
35.176,20.642,5.56
35.327,19.556,6.508
34.672,21.196,5.958
36.422,19.714,5.209
33.688,20.696,5.827
35.787,19.896,7.058
34.911,19.653,6.962
34.87,20.516,5.57
35.301,20.408,6.465
35.558,21.271,5.929
34.585,21.137,5.938
35.516,19.216,6.017
33.879,20.523,6.128
34.745,20.175,6.309
35.467,20.237,5.981
34.685,19.988,6.352
35.145,20.152,5.97
35.195,20.029,6.007
35.699,20.652,6.116
35.448,19.704,5.882
34.646,19.813,6.72
34.295,17.814,5.566
36.261,20.226,6.576
35.381,20.586,6.351
34.746,20.631,6.853
35.723,20.703,6.749
35.067,20.428,5.01
34.335,20.647,4.653
35.759,20.658,6.244
35.252,19.887,5.592
35.549,20.013,4.826
33.779,19.809,5.608
35.425,20.538,5.867
34.547,19.477,6.358
35.241,20.897,5.974
33.475,20.137,4.93
36.074,20.586,6.488
35.221,19.726,7.412
36.036,20.786,5.862
34.071,19.71,5.909
35.715,19.922,6.438
34.438,19.352,5.744
34.614,20.272,5.717
35.044,20.567,5.045
34.974,19.037,6.167
35.065,19.759,6.326
33.92,20.039,6.075
35.523,20.067,4.839
34.667,20.751,6.89
34.687,19.423,6.508
34.666,20.129,6.057
34.382,20.27,6.116
34.13,20.188,5.204
34.844,18.918,6.342
35.341,18.454,6.56
35.455,19.618,5.76
35.554,21.194,6.842
34.679,19.04,5.322
34.581,19.374,4.916
34.825,19.776,5.84
34.598,19.392,4.951
34.827,19.944,6.092
35.775,20.799,6.666
35.565,20.384,5.19
34.911,20.105,5.365
34.712,20.022,5.842
34.835,20.418,4.88
34.916,20.456,6.285
34.241,20.36,6.859
34.299,20.146,6.247
34.83,20.02,5.758
35.294,18.916,5.948
35.209,20.509,7.08
34.709,19.43,5.995
34.414,19.473,7.117
35.254,20.293,5.642
34.931,20.131,5.444
35.723,19.551,4.503
36.395,20.117,5.436
34.958,20.676,5.137
35.064,20.147,6.884
34.177,20.876,5.866
35.281,19.532,5.489
34.973,20.625,6.649
34.166,20.503,5.656
34.544,19.105,5.332
35.582,19.457,6.036
36.047,20.835,5.831
34.985,18.874,4.856
34.832,19.728,5.791
35.796,20.189,6.441
34.802,19.952,5.127
34.415,21.543,5.738
34.764,19.827,7.016
34.84,19.743,5.068
35.352,19.293,5.795
35.134,20.521,6.526
35.29,20.785,7.065
35.301,20.485,6.398
35.127,20.205,5.645
35.161,19.743,5.378
35.042,19.481,6.325
33.954,19.802,5.656
35.398,19.814,6.32
34.579,19.496,6.433
34.906,19.669,5.371
34.542,19.845,5.077
34.592,20.485,5.897
35.301,20.675,6.122
35.074,19.13,5.712
35.107,19.824,6.559
34.78,20.464,5.515
33.914,19.735,5.441
34.629,18.99,6.374
36.08,19.779,5.076
35.304,19.579,5.877
35.47,20.412,6.18
35.163,19.551,5.841
34.338,20.546,4.953
35.169,19.601,6.175
34.805,20.078,7.015
34.889,19.798,5.092
36.399,19.951,5.329
34.901,19.839,6.35
34.338,19.435,5.555
34.107,20.087,6.049
36.089,19.781,5.371
35.637,19.886,5.657
35.369,20.186,6.803
34.137,20.282,5.973
35.13,20.143,5.276
34.096,21.683,5.732
35.278,20.231,6.636
34.885,19.522,6.331
35.064,21.239,5.197
36.286,20.041,6.061
34.631,20.04,6.836
35.083,19.717,6.397
34.215,19.431,6.908
35.793,19.742,5.974
34.162,19.448,5.923
35.563,20.055,5.582
35.537,19.736,6.005
35.02,19.754,6.155
36.399,20.326,6.239
33.673,20.548,6.651
35.013,20.665,5.97
34.673,21.033,5.568
35.092,19.691,6.054
33.751,20.428,5.588
34.813,20.226,5.815
34.982,20.558,5.987
34.558,19.761,6.742
35.613,19.651,7.129
35.69,19.989,5.3
35.903,21.657,5.523
35.017,19.574,5.855
35.989,19.619,6.517
35.084,20.185,6.125
35.575,20.748,5.943
35.022,20.056,5.979
34.425,20.401,6.877
34.436,19.887,6.107
35.137,20.001,6.573
34.948,19.014,6.249
34.718,20.612,5.382
36.147,19.79,6.202
35.066,19.488,5.692
35.752,21.189,6.533
35.117,19.803,6.382
35.699,19.813,7.17
35.359,19.765,6.114
34.488,19.91,5.436
35.32,20.892,6.323
35.65,21.651,6.637
34.815,20.05,5.872
34.733,20.668,5.678
35.413,20.373,6.078
34.916,20.196,5.039
35.207,18.538,6.005
35.259,21.448,6.457
34.255,19.667,6.16
35.283,20.631,6.617
34.226,19.978,6.762
34.887,20.347,6.193
35.307,20.392,5.938
34.511,20.029,5.478
35.02,19.914,6.012
34.694,20.019,5.969
35.238,19.432,7.037
35.017,21.012,6.629
34.91,19.724,6.427
34.525,19.79,5.934
35.779,20.049,6.811
35.995,19.674,4.56
35.29,20.146,5.766
35.945,18.868,6.301
34.367,20.413,5.665
36.042,19.365,5.578
33.944,20.346,6.607
34.352,20.422,6.154
35.132,20.218,5.963
34.745,20.102,6.139
34.833,20.189,5.867
34.979,19.598,5.551
35.189,19.634,6.334
35.652,19.781,6.67
35.45,21.002,6.582
35.588,19.715,6.48
34.48,20.013,6.082
33.848,19.599,5.84
34.521,19.886,6.7
34.517,20.596,5.263
34.533,20.265,5.381
34.301,19.931,5.951
35.777,19.905,5.772
36.271,20.683,6.703
34.117,20.262,5.799
34.875,19.741,5.798
34.638,19.729,5.876
35.297,19.447,5.025
35.801,20.347,5.555
34.353,19.123,6.512
34.844,20.338,5.664
34.281,21.174,6.581
35.153,19.77,5.259
34.9,21.762,6.521
35.677,20.945,4.991
34.824,19.626,5.767
34.182,20.006,5.662
35.166,19.83,6.692
35.714,20.707,7.045
34.777,21.375,7.842
34.432,19.849,5.621
35.342,19.75,5.944
34.331,19.723,6.024
34.848,18.856,4.903
34.708,19.209,5.149
35.133,19.325,4.858
33.34,20.4,6.611
35.106,20.145,6.909
35.016,20.235,6.131
34.283,20.025,6.08
34.8,20.046,6.676
33.17,19.505,7.034
33.307,18.9,6.469
34.783,21.035,5.889
35.23,20.531,6.069
36.217,20.535,5.525
34.759,20.864,5.873
35.793,19.939,5.839
34.639,20.045,5.855
34.476,19.553,5.451
34.812,19.991,6.223
35.869,20.188,5.741
34.782,20.922,5.708
34.703,19.716,5.078
34.55,20.731,5.275
35.4,20.652,5.866
34.896,19.382,6.511
35.692,20.161,7.238
35.951,20.596,4.934
35.155,19.83,6.588
35.057,19.21,6.044
35.432,19.799,6.149
36.369,19.526,5.273
34.58,18.14,5.756
34.856,20.197,5.881
35.484,20.782,4.585
34.948,19.975,5.539
34.605,19.813,6.905
35.12,19.255,5.518
34.823,20.472,5.64
35.027,19.93,5.81
34.638,20.282,5.831
33.879,19.371,6.616
34.425,20.816,4.929
35.765,20.824,5.984
34.442,19.907,5.663
34.838,19.658,5.763
35.195,19.241,6.806
34.717,19.912,6.351
35.468,19.822,5.827
35.704,19.818,5.383
33.484,21.132,6.356
34.066,20.1,6.657
34.735,20.279,5.483
33.921,19.62,5.065
35.821,18.919,5.719
34.188,19.802,5.983
35.539,20.309,5.08
35.445,19.703,5.239
35.93,20.594,6.68
35.07,20.3,6.186
35.519,18.808,6.174
34.466,19.764,5.778
33.656,20.241,6.877
34.873,20.193,6.715
34.433,19.539,5.988
35.42,19.402,6.113
34.042,20.716,6.833
35.183,19.705,5.967
35.496,19.947,6.355
34.8,19.602,6.698
35.338,20.948,6.439
35.308,20.478,5.37
34.483,19.949,5.294
35.419,20.433,6.182
35.472,20.459,7.009
34.807,19.585,5.377
36.356,20.195,4.03
34.41,20.37,4.851
35.983,20.191,5.428
34.192,20.677,6.237
34.831,19.6,7.047
36.013,20.962,6.098
35.801,19.652,5.13
35.051,20.15,6.088
33.502,19.732,5.248
35.597,19.569,5.404
34.092,19.787,5.963
35.982,19.803,5.577
34.979,20.494,5.953
35.108,19.311,5.584
35.416,20.007,6.651
34.331,19.871,6.115
35.149,20.68,5.515
36.144,20.128,7.51
35.102,20.173,5.715
35.136,20.366,6.54
35.752,20.65,4.441
35.517,19.264,5.265
33.96,19.996,6.481
35.629,20.083,6.849
33.344,18.4,6.343
35.656,20.313,5.051
35.976,20.507,5.211
35.454,20.529,7.049
33.735,19.816,5.408
32.996,20.533,5.695
33.98,18.988,5.576
34.062,20.057,5.07
35.372,19.78,5.491
35.116,19.201,5.769
34.865,20.327,7.398
35.061,20.054,4.774
35.111,20.635,5.744
34.835,19.406,5.147
35.065,20.428,5.576
34.596,19.33,6.66
35.871,20.16,6.465
34.733,19.11,5.715
35.373,20.077,6.248
34.508,20.168,6.446
34.597,19.645,6.029
33.822,19.914,5.304
35.435,20.317,6.235
35.492,19.989,6.186
35.493,19.271,6.521
35.107,19.769,6.131
35.607,20.351,6.481
34.224,20.14,5.392
34.939,20.257,5.747
35.503,20.541,5.698
35.204,20.023,6.848
35.516,20.853,5.699
34.922,19.348,4.683
34.717,19.232,6.531
34.386,18.843,7.17
34.274,19.51,6.984
34.862,19.108,5.455
34.844,19.611,5.325
35.144,20.005,5.631
34.624,20.728,6.076
34.738,19.829,5.441
35.173,20.011,6.192
35.089,19.797,5.156
34.911,21.213,6.081
35.198,19.172,6.63
34.639,20.427,5.826
35.044,21.129,6.025
35.403,19.235,6.228
34.792,19.328,6.763
34.978,19.748,6.509
34.87,19.38,6.27
35.167,18.816,5.537
34.902,20.156,5.665
35.218,18.878,6.032
34.382,19.549,5.829
34.939,20.235,5.393
34.278,19.659,6.821
34.98,20.096,4.824
34.548,20.327,5.749
35.921,20.435,5.923
34.538,19.166,6.138
34.963,19.703,6.242
33.606,19.69,5.308
35.088,19.816,5.797
35.266,20.099,5.985
34.844,20.207,5.327
35.686,21.16,5.84
35.393,20.242,6.411
35.312,18.927,5.962
35.549,20.713,5.862
35.873,20.046,6.192
35.114,20.102,6.138
35.675,20.801,5.152
35.491,20.186,6.059
35.209,19.518,6.272
34.875,19.8,5.535
35.652,20.229,5.467
35.558,20.176,5.931
35.464,19.581,5.419
35.792,18.93,5.795
34.257,19.353,5.65
34.524,19.669,6.788
35.192,20.8,6.296
36.198,20.297,6.079
35.894,20.336,6.298
35.777,19.463,6.205
34.74,19.497,6.209
34.66,19.052,5.275
35.601,19.307,5.335
35.16,19.949,5.159
34.965,19.675,5.45
34.997,19.663,5.403
36.079,21.263,6.195
35.489,19.741,6.045
35.315,20.507,6.321
35.827,19.888,6.077
34.465,19.967,5.937
34.052,19.355,5.414
34.773,19.892,6.101
35.583,19.8,5.448
34.581,19.531,5.528
35.622,20.639,6.196
36.261,20.002,4.744
35.409,19.463,5.625
36.589,20.892,5.322
34.994,19.78,5.931
34.867,20.02,5.793
34.001,20.72,5.349
35.035,19.591,6.276
35.262,19.362,6.389
35.069,20.381,6.519
34.886,20.372,6.795
33.206,19.41,7.382
35.497,19.599,5.822
35.171,20.151,5.398
35.045,20.41,5.819
35.039,20.166,6.634
35.152,18.761,5.848
35.338,20.427,6.374
35.728,19.795,5.624
34.35,20.831,5.021
35.56,19.83,5.322
35.193,19.915,5.656
33.889,20.083,6.511
35.588,19.749,5.934
34.517,21.063,4.694
33.826,19.953,6.913
34.433,20.129,5.524
35.065,20.041,5.834
34.887,19.967,5.485
35.447,19.803,5.748
35.389,18.918,5.627
35.178,19.648,6.124
35.231,19.99,6.445
34.563,20.194,5.383
35.121,19.883,5.947
35.348,20.254,6.359
33.982,18.966,5.901
34.986,20.223,5.683
33.799,19.657,5.353
34.906,19.75,6.666
35.512,19.605,6.147
35.874,19.745,6.306
35.382,19.846,6.013
33.101,20.452,6.097
34.281,19.075,5.231
33.605,19.977,7.17
34.004,19.847,5.485
34.624,20.054,7.436
35.529,18.436,6.328
34.83,18.926,5.027
35.057,19.593,5.979
34.633,19.539,5.676
34.761,20.521,4.699
34.692,20.496,6.928
34.663,19.433,5.447
34.671,20.328,5.884
35.17,19.523,5.977
34.545,20.751,7.5
34.722,20.443,6.454
36.205,20.507,6.519
35.051,20.363,5.824
34.573,19.029,5.308
34.686,20.536,6.046
35.135,18.013,5.276
34.668,20.169,5.956
35.27,19.682,6.013
35.325,20.331,6.666
34.549,18.554,6.511
35.187,19.171,5.456
35.03,19.659,6.501
35.027,19.7,5.987
35.368,19.092,5.506
34.228,20.045,5.77
35.595,19.871,4.888
34.486,20.502,6.113
34.47,19.139,6.277
36.113,21.066,6.145
34.761,19.209,6.199
34.076,20.484,6.368
35.639,19.646,6.264
35.656,19.589,5.505
35.018,20.704,6.333
33.858,18.71,6.566
35.498,20.481,5.976
33.936,19.572,5.188
34.862,20.382,6.198
35.102,19.745,5.369
34.039,20.507,6.271
34.559,19.428,6.04
34.832,20.907,5.863
35.476,20.567,6.026
35.616,21.571,6.176
35.0,18.869,5.832
34.514,20.143,5.095
35.069,20.101,5.346
35.077,19.295,6.049
34.719,21.182,6.684
35.454,20.02,5.335
35.364,20.19,6.569
35.535,19.955,4.22
35.132,20.838,7.733
35.683,20.045,5.78
35.04,20.04,5.655
34.86,19.667,6.136
35.194,19.778,6.771
34.185,19.756,6.239
35.285,19.691,7.241
34.558,19.227,6.018
34.623,20.989,6.764
34.093,20.352,6.85
36.267,20.416,5.532
34.915,20.854,6.46
35.045,19.809,6.988
34.209,19.612,6.327
34.164,20.714,6.324
34.98,19.765,6.447
34.637,21.072,5.815
35.61,20.136,5.559
34.636,18.904,5.461
35.22,20.159,5.836
34.545,20.161,5.327
34.312,19.229,5.811
35.221,19.873,6.359
33.814,20.134,5.695
34.228,19.949,5.299
35.298,19.599,5.724
33.412,19.779,5.269
35.723,19.304,6.674
34.676,19.651,4.913
36.436,20.758,5.109
35.0,19.837,5.631
35.373,19.512,5.866
35.392,19.825,6.539
34.811,20.012,6.092
34.343,20.101,6.451
35.016,19.671,5.39
34.98,20.378,5.366
34.214,20.507,6.683
35.13,20.892,6.064
35.008,19.371,6.516
33.934,20.952,7.669
35.997,20.196,6.382
34.81,20.617,6.057
34.074,20.183,6.072
34.248,20.774,5.986
33.983,20.279,6.155
34.214,19.67,5.351
35.365,21.029,6.25
34.631,19.928,6.118
36.332,20.474,6.444
34.857,20.571,6.306
35.433,20.792,6.159
35.709,20.565,6.456
35.091,19.099,5.746
35.829,19.806,5.455
34.742,19.097,6.623
35.551,19.875,6.256
34.251,19.936,5.889
35.135,20.751,5.755
34.795,19.475,6.013
35.019,21.19,6.246
35.34,19.625,4.947
34.967,20.761,5.133
34.546,20.351,4.903
35.087,19.345,5.421
35.784,20.696,6.683
36.294,19.479,6.938
35.262,19.604,6.143
34.977,19.879,5.57
35.451,18.195,5.274
34.11,20.668,5.956
35.137,20.516,6.014
34.994,20.34,5.726
34.811,19.645,6.218
33.961,20.445,6.587
35.267,20.6,5.57
35.27,20.126,5.922
35.221,20.961,6.81
35.358,19.828,4.679
34.612,19.752,6.019
35.166,20.031,6.599
34.735,20.718,6.528
35.804,19.692,5.681
35.518,19.555,6.559
34.143,20.051,4.41
36.019,19.739,5.77
34.959,20.447,6.319
36.237,20.074,4.581
35.221,20.075,7.057
35.193,19.83,6.441
35.094,18.715,6.031
35.752,20.512,5.831
34.713,19.559,6.357
34.52,19.162,4.964
34.563,19.973,6.996
34.854,19.12,6.0
34.584,20.595,6.069
34.957,19.81,6.28
34.237,19.402,6.859
34.901,20.131,4.56
35.32,20.514,5.265
36.574,19.461,5.716
35.769,19.846,4.583
35.979,20.176,6.248
35.297,19.615,7.828
34.132,17.971,5.682
36.37,19.825,5.65
35.404,19.359,5.363
33.148,19.908,5.44
35.362,19.037,6.336
35.148,20.233,5.655
35.682,19.887,5.853
35.647,20.795,6.245
34.455,20.822,6.338
35.393,20.144,6.342
33.873,20.096,5.38
34.886,20.357,6.482
34.771,20.277,6.337
33.825,19.873,6.032
36.072,20.656,5.59
34.987,19.847,5.981
34.727,19.622,4.875
34.491,19.987,6.56
35.839,20.454,5.635
34.704,19.867,5.985
35.241,19.874,6.981
35.645,19.532,5.619
34.631,20.57,6.12
34.684,19.516,6.628
35.194,20.07,6.565
34.171,19.835,6.395
34.3,19.7,6.403
35.616,20.417,6.619
35.2,19.339,4.996
35.044,20.197,5.776
35.112,20.156,7.118
35.042,18.734,5.627
35.254,20.13,5.561
34.527,19.919,6.292
34.011,20.483,6.616
35.045,20.016,6.85
36.143,19.77,6.315
35.159,19.806,5.478
34.072,20.362,6.043
34.315,20.086,5.622
34.954,19.936,5.132
34.611,20.008,6.858
35.219,20.811,6.807
35.441,20.445,5.254
34.763,20.099,6.714
34.844,20.513,5.343
35.699,19.827,5.524
35.023,20.817,5.163
34.921,19.742,5.559
35.75,19.332,7.135
35.4,20.319,5.313
35.508,19.786,7.1
34.35,20.932,6.861
35.991,20.07,4.945
34.867,19.797,5.544
35.422,19.147,6.451
35.076,19.988,7.1
35.09,19.955,5.979
34.013,19.503,5.948
34.634,20.384,5.904
34.415,20.193,6.097
35.732,20.115,5.716
34.258,18.95,6.359
34.67,20.04,6.503
35.515,20.559,5.204
34.923,21.038,5.836
35.707,21.375,6.503
35.594,19.825,6.203
35.62,20.234,5.64
34.642,20.567,6.853
35.016,19.153,4.891
34.371,20.411,4.589
34.328,19.362,6.194
35.702,21.556,5.725
35.107,20.05,6.482
35.322,20.116,6.29
35.668,20.069,6.082
34.83,19.301,5.951
34.733,19.334,5.65
35.189,19.609,5.188
35.221,18.391,5.733
34.302,20.008,5.77
34.573,20.395,6.015
34.713,19.611,5.285
35.436,19.751,6.808
35.182,21.157,6.531
33.641,19.896,6.667
35.514,20.036,5.318
34.81,19.716,6.065
35.04,19.664,5.831
35.457,20.625,5.993
34.852,19.856,6.168
35.381,19.556,6.223
36.134,20.439,5.848
36.289,20.703,6.46
34.556,19.245,6.733
34.336,20.148,5.96
35.345,20.049,6.745
34.96,19.487,6.088
34.918,20.866,6.098
34.332,19.135,6.155
35.067,20.308,5.024
34.808,20.906,5.675
35.264,20.992,5.88
36.594,20.025,5.288
35.404,19.965,6.053
34.957,19.411,5.371
35.078,20.901,6.232
35.835,19.488,5.88
34.805,19.867,5.086
34.882,19.502,6.754
35.44,20.401,6.528
35.367,20.333,5.592
34.532,19.578,4.714
35.025,20.219,5.337
35.16,19.729,6.726
35.935,20.191,5.245
35.522,20.176,6.63
33.922,18.904,5.94
35.225,20.17,6.331
35.314,20.462,6.141
35.653,19.977,5.036
35.171,19.705,6.747
35.213,19.922,4.539
35.33,20.846,5.511
34.725,20.338,5.968
34.994,20.019,5.171
34.316,20.141,7.234
35.37,18.816,6.596
35.629,20.757,4.761
34.631,20.213,5.838
34.401,18.89,6.551
34.783,19.914,6.563
35.015,20.306,5.108
35.409,18.811,6.693
35.062,20.497,6.482
34.339,19.578,5.984
34.601,18.757,6.164
34.592,19.926,6.867
35.139,19.606,6.403
34.541,20.898,5.416
35.951,20.153,5.906
33.591,20.009,6.466
34.152,19.072,5.838
35.962,20.457,6.569
35.548,19.531,6.379
34.316,19.952,6.445
35.216,19.027,6.456
34.752,21.183,4.771
35.192,19.672,4.529
34.442,19.878,5.687
35.883,20.6,5.744
34.901,19.397,7.081
35.471,20.49,4.878
35.032,19.688,6.183
34.797,20.163,6.084
34.942,19.011,5.275
33.586,19.986,5.757
35.012,19.851,7.063
35.446,20.183,5.815
35.392,20.399,6.541
35.731,20.744,6.607
35.103,19.942,5.383
34.136,20.293,5.911
35.141,20.623,5.465
35.709,20.688,5.468
34.954,20.966,6.154
34.608,19.111,6.204
36.407,18.843,5.644
37.282,20.009,6.286
34.534,19.915,5.983
34.34,20.612,6.466
35.756,20.198,6.816
34.91,19.42,5.878
36.096,20.426,5.225
35.888,20.771,5.621
33.765,20.43,6.533
35.547,19.989,5.444
34.562,20.669,5.718
34.1,19.71,5.669
35.486,19.237,6.266
35.336,20.083,6.317
35.051,20.62,5.422
34.948,19.663,5.973
34.674,18.741,5.856
34.352,19.322,6.165
35.44,19.113,6.051
35.27,20.278,5.692
35.534,20.242,6.272
34.847,20.029,6.216
34.432,20.308,6.653
35.019,21.035,5.67
34.864,20.104,5.48
34.429,19.591,7.136
34.684,20.163,5.978
35.15,20.069,6.255
35.313,19.623,6.352
34.55,20.293,5.347
34.895,19.352,5.697
34.591,20.202,5.96
35.0,20.238,6.593
34.868,18.6,5.177
35.421,19.892,6.984
34.188,19.971,6.987
34.086,19.423,5.567
35.103,19.883,5.893
34.042,20.642,5.984
34.953,20.306,6.142
33.746,20.801,6.016
35.61,19.006,5.542
35.059,20.518,6.16
34.414,20.402,5.311
35.437,20.024,5.506
35.067,21.105,5.683
34.643,19.967,5.788
35.277,19.52,5.322
35.425,20.143,5.864
34.383,20.364,6.63
35.244,20.322,6.003
36.002,20.274,6.135
34.014,18.894,6.189
34.723,20.282,4.938
35.0,19.941,6.359
35.164,20.223,6.453
35.22,20.716,6.843
33.604,18.242,6.165
34.566,20.958,4.879
35.856,18.564,5.523
34.777,19.873,5.755
35.288,20.985,6.571
35.401,19.669,5.987
34.939,20.102,5.249
34.045,20.019,6.793
34.989,19.707,6.602
35.036,19.647,5.84
35.685,19.687,5.455
35.15,20.93,5.652
34.674,19.508,4.889
35.475,19.092,5.679
35.513,19.515,6.211
34.393,20.073,4.617
34.657,20.333,5.464
35.128,19.753,5.978
34.71,20.594,6.823
35.186,20.649,6.445
35.016,18.436,6.427
34.786,19.05,4.916
35.019,20.451,5.029
34.961,19.236,5.962
34.24,19.838,5.441
33.969,20.233,6.679
34.47,19.09,6.522
35.396,19.814,6.694
34.996,20.574,6.315
34.323,21.297,6.169
35.601,20.238,5.189
33.995,19.705,5.871
34.748,20.052,5.298
34.874,21.628,6.398
34.814,20.116,5.294
35.329,19.988,6.955
35.495,20.165,5.796
34.88,20.173,5.238
34.75,19.382,4.844
35.181,20.352,6.683
36.515,19.689,6.509
35.579,20.334,5.863
35.658,19.821,5.335
35.179,20.402,6.746
35.752,20.105,5.839
35.534,20.712,5.201
35.083,20.582,6.367
35.082,19.74,5.067
35.368,21.393,6.34
34.096,19.43,4.906
35.169,20.805,5.812
34.524,18.87,5.098
34.711,19.515,6.098
34.574,20.542,6.675
35.277,20.896,6.5
34.927,20.514,5.508
34.929,21.586,6.45
34.937,19.67,5.892
35.128,18.177,5.373
35.15,19.386,5.549
35.079,20.058,6.165
35.426,20.279,6.519
36.719,18.706,5.443
35.238,19.446,5.82
34.795,20.73,5.028
34.736,20.074,5.88
34.517,19.784,6.143
35.462,19.029,5.485
34.852,18.951,6.888
34.663,20.733,6.174
34.984,20.342,6.097
35.464,20.629,5.778
35.704,19.681,6.804
34.373,19.206,5.877
34.061,19.94,6.133
34.745,20.599,6.335
34.958,19.428,6.439
34.931,20.369,5.679
34.732,20.37,6.718
35.206,20.6,5.916
34.873,18.773,7.586
36.047,19.256,5.335
35.176,20.044,6.222
35.304,19.36,6.339
35.434,19.466,6.253
34.738,19.713,7.223
36.528,19.434,5.434
34.549,19.6,5.79
34.12,20.131,6.233
34.673,19.74,8.222
33.245,20.057,6.43
34.713,19.929,5.581
35.176,18.468,5.627
35.135,19.774,6.488
34.64,20.795,5.257
34.968,20.225,5.824
34.483,18.966,6.709
34.775,19.307,5.085
35.817,20.201,5.524
34.649,20.041,5.86
33.783,20.015,5.157
34.012,19.855,6.502
35.939,19.728,6.439
34.39,20.444,5.773
36.055,19.423,5.096
34.409,20.133,5.26
34.932,20.091,6.909
34.507,21.084,6.105
35.01,19.985,7.064
35.353,19.453,5.581
34.39,20.018,5.982
35.303,19.603,5.871
35.128,19.39,5.352
35.581,19.851,5.941
35.254,20.583,5.801
35.956,20.018,6.278
35.672,18.964,4.825
34.94,20.253,6.143
34.487,20.31,6.386
35.442,20.179,6.978
35.028,19.153,7.2
36.443,20.285,6.235
35.186,19.956,6.039
34.647,21.903,5.321
35.289,19.37,6.971
34.61,19.776,6.528
34.927,19.548,4.745
35.01,19.818,7.163
34.673,19.47,5.39
35.137,19.562,6.011
35.662,20.629,6.009
34.606,20.387,6.484
34.403,20.981,6.172
34.929,19.569,5.838
35.472,20.741,5.686
34.409,18.574,5.792
35.498,19.933,5.644
35.938,20.302,6.043
35.025,20.19,6.63
35.01,20.269,5.146
35.475,20.112,5.466
35.909,19.558,7.401
36.031,19.858,6.746
35.073,21.262,5.353
35.621,19.278,6.364
34.26,20.05,6.309
35.751,20.351,6.331
34.382,19.553,6.525
34.507,19.655,5.769
35.244,19.105,6.323
35.62,19.36,6.532
34.367,19.794,5.77
34.078,20.423,5.746
35.147,19.458,6.325
34.961,19.607,5.852
35.382,20.753,6.481
34.945,21.048,5.985
35.456,20.155,6.758
34.385,20.3,5.116
33.969,20.952,5.538
35.13,19.588,5.121
35.085,19.557,5.595
33.338,19.931,5.623
34.005,19.251,5.895
34.821,20.377,4.147
35.398,19.407,6.931
35.362,20.169,5.867
35.009,19.787,5.71
35.583,19.842,5.588
35.168,20.155,6.022
35.439,20.136,5.879
35.64,20.038,6.396
35.392,19.295,6.822
34.394,20.31,5.49
34.773,20.173,6.495
36.029,20.466,4.972
35.351,19.808,5.925
34.885,20.739,7.584
35.169,19.633,5.785
35.573,19.663,5.865
34.518,19.755,5.415
34.838,20.312,6.026
34.639,20.448,6.015
34.97,19.555,5.496
35.757,19.403,7.144
34.907,19.927,5.255
34.259,20.568,6.181
35.514,18.439,5.522
35.133,20.258,7.72
34.698,18.981,7.213
35.065,19.028,5.994
35.608,20.289,4.846
34.626,19.896,6.867
35.062,20.911,5.738
33.481,20.156,5.74
34.986,20.026,6.303
33.924,19.649,6.1
35.506,19.633,5.453
34.86,19.973,4.862
33.744,20.537,6.546
35.547,19.71,8.106
34.656,21.223,6.649
35.19,20.097,6.514
35.256,19.802,6.708
34.966,19.632,6.61
34.349,19.972,6.885
34.963,20.427,5.398
34.431,19.969,6.86
35.129,19.315,5.632
35.325,20.221,6.512
34.562,20.295,6.685
34.549,20.502,5.752
34.77,19.928,6.128
35.535,20.72,7.088
34.681,20.434,6.264
34.743,20.778,6.323
34.765,20.228,5.87
34.231,19.667,5.598
35.691,20.489,6.038
35.647,19.814,6.697
34.973,20.556,6.066
35.66,20.052,5.639
35.048,20.702,6.743
35.025,19.84,6.015
35.219,20.383,5.882
35.359,20.126,6.783
34.891,19.52,6.452
34.253,20.97,6.848
34.407,20.088,5.768
35.517,19.416,5.834
35.666,19.509,5.73
35.103,19.653,6.431
34.528,20.112,5.409
35.564,19.191,6.782
35.359,20.236,5.389
35.471,19.734,6.724
35.747,20.136,6.704
34.775,19.939,6.442
35.138,19.67,6.242
36.041,20.508,6.975
35.13,20.026,5.931
33.731,19.192,6.205
35.622,19.973,6.092
34.929,20.057,5.83
34.466,20.625,5.792
36.063,19.581,5.608
35.162,20.275,6.304
35.154,20.623,4.729
35.083,20.013,6.597
34.977,20.142,4.991
35.283,21.109,6.682
35.408,20.986,6.2
35.291,19.858,6.514
34.476,18.335,4.586
34.878,18.935,7.175
35.476,20.387,6.875
34.971,19.388,6.156
35.22,19.274,4.803
34.751,20.942,7.183
35.929,20.015,5.58
35.38,20.355,6.034
35.1,20.169,6.652
34.393,19.948,5.542
36.262,20.202,5.34
34.181,19.493,6.695
34.626,18.888,5.598
34.811,19.882,5.864
34.905,18.787,5.929
35.254,19.94,6.79
35.116,18.232,5.912
35.159,19.495,4.973
35.032,20.028,6.048
33.949,20.179,6.84
34.433,20.358,5.346
34.557,19.75,5.279
34.633,19.913,6.697
35.701,20.775,6.864
35.804,20.259,5.183
34.539,20.334,6.284
35.683,20.321,6.267
35.328,19.926,5.589
36.299,19.738,6.05
35.012,20.266,4.99
34.919,19.017,5.833
34.826,20.521,6.174
35.913,19.194,6.294
34.609,19.789,5.519
34.793,19.902,6.371
34.502,19.942,6.095
35.927,20.808,5.335
36.026,19.889,5.958
35.525,18.767,5.476
35.362,21.099,5.306
34.855,20.418,6.365
34.612,20.061,5.386
34.47,20.368,6.701
34.89,20.071,6.38
35.294,19.447,6.677
34.163,19.439,6.871
34.805,18.935,6.715
34.229,18.786,6.375
35.345,20.632,5.131
34.694,19.679,5.912
35.251,19.508,5.825
35.081,19.141,6.344
35.656,20.6,6.567
34.337,20.744,6.035
35.894,20.964,5.593
34.755,20.205,5.447
34.193,19.381,6.179
34.5,19.987,6.914
35.068,19.327,6.149
35.366,20.103,5.252
34.154,19.996,6.407
35.656,20.018,5.5
35.051,19.006,6.051
34.366,20.199,5.573
34.228,19.946,5.963
35.298,20.061,5.175
35.815,19.958,4.782
34.357,20.307,6.638
34.36,19.128,5.826
35.167,21.137,6.412
35.328,18.843,5.758
34.641,19.876,6.495
35.57,19.32,6.298
35.327,20.774,5.083
34.505,19.99,6.02
36.345,20.284,5.538
34.5,19.121,6.563
36.122,20.012,5.724
35.17,21.342,5.158
34.907,20.138,5.89
34.511,19.987,6.056
35.628,20.472,6.266
34.955,20.19,7.358
34.045,19.214,5.489
36.239,20.175,5.402
33.401,20.079,5.521
35.078,19.876,6.763
35.305,20.153,6.389
35.459,19.596,6.162
35.034,19.38,5.748
34.413,20.854,5.277
35.665,20.99,6.165
34.316,19.649,5.751
35.089,19.533,6.596
35.21,19.281,6.275
34.798,19.705,5.824
35.468,19.321,6.464
35.239,20.302,7.006
35.283,21.223,5.572
34.916,19.406,5.823
35.176,20.78,7.078
35.253,20.592,5.444
35.324,19.843,5.962
34.952,20.305,6.156
34.751,19.435,6.404
34.764,19.362,6.356
34.609,20.705,5.571
34.934,19.772,5.188
34.497,18.902,5.037
35.137,19.697,5.737
34.171,19.458,6.554
35.322,20.172,5.091
34.024,19.973,6.134
34.555,19.757,5.932
36.013,19.425,6.027
34.152,20.953,4.637
34.487,18.568,5.718
34.141,20.149,5.264
34.587,18.881,5.259
35.253,19.785,5.806
35.47,19.885,6.432
34.897,21.433,5.858
35.555,20.289,6.387
34.639,20.642,5.883
34.485,20.292,5.874
35.401,19.494,6.746
35.367,19.678,4.568
34.563,20.406,6.199
36.511,19.435,6.235
34.412,20.264,7.012
34.47,19.781,4.718
34.466,19.465,7.116
34.945,18.488,5.7
34.559,21.814,5.833
34.452,19.686,5.812
34.323,20.645,5.66
35.186,20.402,5.006
34.183,19.813,6.096
34.815,20.113,6.966
35.747,19.834,6.165
34.792,19.585,6.315
35.461,20.201,6.091
36.015,20.189,5.364
35.397,20.2,5.375
35.521,20.513,6.069
35.203,20.777,5.865
35.333,20.522,6.728
35.062,19.084,6.102
34.774,19.906,5.508
34.646,19.656,7.023
35.64,19.471,7.184
34.079,20.034,5.938
35.157,21.003,6.375
34.404,19.944,5.589
35.221,19.88,6.365
34.094,20.325,5.053
35.831,19.165,6.1
35.716,20.064,6.021
34.219,19.557,5.417
34.925,19.244,5.659
35.055,19.784,5.227
34.585,20.013,6.689
35.192,20.372,6.086
34.979,19.875,5.52
34.991,21.122,5.476
36.149,19.681,6.304
34.877,21.101,6.835
35.74,19.946,5.034
34.271,20.973,6.809
34.28,20.245,6.983
34.98,18.721,5.6
34.793,19.648,5.561
34.472,20.644,5.862
34.311,20.045,5.925
35.304,19.958,6.039
36.1,20.399,5.765
36.211,19.61,7.081
34.157,19.375,6.664
34.68,19.815,5.292
35.077,20.092,5.936
35.388,20.142,6.36
34.78,20.078,5.543
34.953,20.43,5.706
34.953,19.874,4.251
35.037,19.477,5.411
34.168,20.145,6.428
34.889,21.391,5.732
35.301,19.839,5.63
35.006,19.475,5.658
34.874,18.099,5.412
34.721,19.469,6.001
35.971,20.445,6.771
34.098,20.196,6.608
35.631,20.083,6.092
34.468,19.826,5.7
35.61,19.775,5.479
34.424,19.451,4.678
34.262,19.366,6.407
35.295,20.691,6.136
34.812,20.579,6.672
35.849,20.085,5.62
35.696,20.542,6.219
34.923,19.223,6.268
35.116,20.776,6.121
34.499,19.961,6.064
34.532,20.792,5.96
34.91,20.321,5.736
34.968,19.502,5.483
35.428,19.764,6.944
34.968,20.842,6.083
35.568,19.576,5.726
34.932,19.894,5.388
34.834,20.436,6.136
35.657,20.121,6.211
35.765,19.956,5.049
36.25,20.591,5.427
34.938,20.099,5.355
33.919,19.198,6.19
34.846,21.074,4.451
34.533,19.497,6.235
35.704,20.095,5.961
34.398,20.295,5.796
35.159,20.354,6.111
35.714,19.962,5.609
34.903,18.544,5.819
35.514,19.815,6.786
35.086,19.967,7.417
34.642,19.4,4.779
35.752,19.992,6.689
35.2,21.536,6.216
35.369,19.149,6.164
35.019,20.104,6.721
35.691,19.517,5.75
34.514,19.839,6.478
34.848,19.255,6.018
34.565,19.963,5.941
34.924,19.476,6.495
35.197,20.132,5.719
33.936,19.958,5.505
34.519,20.468,6.003
35.358,19.672,5.671
34.983,20.009,5.492
34.803,20.351,5.982
35.211,19.638,6.406
35.535,19.778,6.507
34.426,21.285,5.137
36.133,20.153,6.109
33.897,18.582,7.158
35.687,19.526,5.185
35.072,19.676,5.475
34.366,20.083,5.891
35.23,19.61,5.759
35.911,19.337,6.245
34.018,19.954,4.72
36.005,19.392,5.83
34.564,19.907,5.789
34.034,20.228,6.907
34.763,19.76,6.601
34.69,20.131,6.044
35.483,19.802,5.662
35.964,19.472,4.79
33.295,20.028,4.553
34.742,19.864,5.828
33.419,19.966,5.805
33.518,20.063,5.402
35.185,20.58,5.676
35.362,20.355,5.369
35.132,20.71,6.471
35.128,20.006,5.712
35.648,21.374,6.358
34.383,19.485,6.327
34.751,19.799,6.091
34.328,20.26,6.95
34.729,20.441,6.364
35.708,19.871,4.836
35.46,19.628,5.435
34.54,18.968,6.113
35.235,19.223,5.122
35.246,19.776,6.16
36.375,20.529,6.772
34.371,19.682,5.509
34.544,20.37,6.851
34.242,20.557,6.755
36.516,20.124,6.243
35.597,18.108,6.777
35.583,19.915,6.329
34.508,20.192,5.318
34.82,20.64,6.663
35.604,19.589,6.278
34.639,18.91,7.464
34.682,19.901,5.709
35.227,20.333,6.076
34.672,19.808,6.777
34.633,19.918,5.836
35.419,19.436,6.78
35.491,20.464,6.602
35.95,19.222,5.914
35.399,21.07,5.646
35.131,19.435,6.378
35.853,21.089,6.291
34.486,20.417,6.424
34.456,19.566,6.507
35.395,19.181,6.593
35.594,19.143,5.843
35.412,20.404,5.408
35.194,19.865,5.217
34.451,19.983,6.208
36.149,20.818,5.959
35.006,19.532,5.801
34.686,19.551,4.793
34.576,20.654,5.931
35.455,19.475,6.085
35.423,20.552,6.058
34.656,20.813,6.412
35.314,20.889,5.666
34.734,19.599,5.878
34.861,19.235,5.698
35.092,20.232,6.071
35.249,19.743,4.731
35.067,20.341,5.696
34.213,19.788,6.575
34.733,20.263,6.401
36.254,19.091,5.34
33.857,20.866,5.802
34.426,20.195,6.705
34.801,18.802,5.858
34.995,20.165,6.019
35.24,19.565,5.924
34.339,20.829,7.081
35.047,19.486,5.53
34.606,19.669,6.694
35.029,19.107,4.951
34.739,19.641,5.994
35.386,20.484,6.802
33.547,18.942,6.255
35.314,20.745,5.414
35.305,20.282,6.514
35.327,20.585,5.381
35.654,19.811,5.85
34.996,20.184,6.444
35.055,20.919,6.283
35.432,19.244,5.476
34.562,20.064,5.556
34.165,20.053,6.374
34.141,20.541,5.784
35.062,20.027,6.386
34.859,21.199,5.396
35.071,19.855,6.032
34.141,20.168,6.384
35.26,20.608,5.54
34.796,20.414,5.627
34.332,19.752,5.501
35.087,19.547,6.408
35.488,20.357,6.644
35.291,19.701,6.832
35.552,19.1,5.701
34.841,20.257,6.508
35.552,18.955,5.149
35.803,19.917,6.3
34.52,19.324,5.528
34.716,20.102,5.719
34.148,21.047,4.841
35.361,20.658,6.144
35.127,20.335,6.658
35.552,20.138,5.328
35.306,20.476,6.08
34.514,20.216,6.309
35.036,19.566,6.223
35.15,19.997,5.597
35.137,20.07,6.326
35.421,20.098,7.155
35.819,19.219,6.868
34.857,20.372,6.176
34.658,20.049,5.993
35.871,20.287,5.01
34.965,20.391,6.957
34.222,19.613,6.234
34.85,19.561,5.189
34.506,20.851,5.104
35.407,20.043,5.893
33.841,20.362,5.837
35.715,20.566,5.938
36.243,19.495,5.562
34.094,20.416,5.975
35.435,19.919,6.454
35.22,20.463,4.437
34.204,19.278,5.759
35.279,20.196,4.403
34.525,19.803,6.123
35.554,19.772,5.43
35.135,19.626,5.447
34.519,19.927,5.928
35.119,20.122,5.65
34.071,19.625,4.828
34.213,19.472,5.847
36.094,21.198,6.278
34.871,19.998,6.596
34.586,20.361,7.133
34.276,20.021,7.173
35.447,19.657,6.201
34.491,19.566,6.532
34.436,18.809,6.612
34.724,19.664,6.251
34.938,19.213,5.284
34.183,19.853,5.176
34.926,20.783,5.777
34.921,20.476,5.478
34.899,19.629,6.193
35.665,19.485,5.225
34.911,20.526,5.753
35.745,19.863,6.802
33.986,20.171,5.404
34.847,19.537,6.656
35.026,20.937,5.344
33.984,19.72,7.01
33.734,19.975,4.781
35.7,19.36,6.243
36.78,20.188,5.924
34.999,18.928,5.522
35.059,19.565,5.924
35.039,20.993,6.087
33.971,19.565,6.153
35.546,20.279,6.84
34.54,20.119,5.593
33.463,19.262,6.323
35.252,19.906,6.429
35.043,18.917,6.01
35.982,20.072,6.955
34.37,20.011,5.56
34.997,20.163,5.915
35.103,19.757,6.144
35.769,20.197,5.364
36.201,20.228,7.207
34.876,20.472,5.697
35.424,19.293,6.235
34.385,21.11,6.312
34.427,20.802,6.895
34.647,19.865,6.322
34.755,20.739,5.987
34.548,19.724,6.101
35.394,19.368,5.326
35.329,20.698,6.612
34.98,19.543,5.797
34.974,19.163,6.987
35.409,19.867,6.466
34.897,21.069,5.753
35.236,20.285,6.02
35.753,19.674,6.738
34.474,20.563,6.68
34.779,20.57,6.599
35.618,21.266,6.462
35.35,20.208,6.038
35.428,20.136,7.203
34.341,20.739,5.484
34.241,19.605,5.266
35.531,19.726,5.695
35.098,20.654,6.229
34.984,19.728,6.147
34.985,19.671,6.492
34.973,19.909,6.086
34.6,19.834,6.239
34.704,19.411,6.007
35.037,20.101,5.761
34.556,20.514,5.467
34.778,20.434,5.515
35.067,20.48,5.83
34.185,20.036,6.686
35.561,19.656,6.512
35.217,21.072,5.902
34.703,20.198,6.064
34.25,20.159,6.597
35.209,20.349,4.537
34.299,19.951,5.664
35.532,19.639,6.417
35.199,17.88,5.106
35.565,19.963,5.863
35.178,20.124,6.554
35.49,20.625,6.387
35.206,20.268,5.225
35.18,19.593,5.124
35.624,19.821,5.191
35.279,18.898,5.473
35.563,19.457,5.053
35.643,20.149,5.519
34.757,19.956,6.591
34.579,20.419,5.624
35.446,19.263,5.973
34.589,19.127,7.275
35.395,20.656,6.752
34.623,20.26,6.993
33.623,19.97,6.918
34.675,20.704,5.676
34.738,19.942,5.717
34.595,20.344,6.667
34.945,19.099,5.368
35.005,19.967,5.073
33.995,20.951,6.018
35.706,21.332,5.269
35.309,20.552,6.335
34.995,19.106,5.215
34.073,20.278,5.469
35.125,19.182,5.67
34.766,19.645,5.049
34.992,20.048,7.142
34.29,20.125,6.11
35.278,20.193,6.754
34.896,19.316,6.29
36.593,19.963,6.179
34.334,19.748,6.004
35.231,19.664,6.191
34.78,20.284,5.669
34.414,20.318,5.371
35.167,19.502,5.912
35.263,20.605,6.082
35.404,20.234,7.56
35.508,20.509,6.248
35.853,20.258,6.251
34.117,20.163,6.505
34.878,19.477,6.377
35.175,20.302,5.545
35.12,19.506,6.72
35.332,19.48,7.005
35.313,19.959,5.271
34.999,19.75,6.957
33.825,20.569,5.656
35.127,20.547,5.878
34.468,19.801,5.539
34.858,19.446,5.993
33.806,21.539,5.627
35.004,19.918,5.301
35.419,19.678,5.926
35.148,20.958,6.905
35.537,20.186,5.845
34.961,20.689,6.453
34.041,19.362,6.516
34.457,20.605,5.393
36.108,19.529,4.9
35.996,19.914,6.105
36.492,19.889,5.78
34.089,19.508,5.15
34.577,19.975,7.153
34.836,18.986,5.879
35.314,18.978,5.606
34.875,19.727,6.41
34.916,19.99,6.722
33.607,19.52,6.085
34.464,20.096,5.532
33.655,19.59,5.874
35.146,20.36,7.055
34.716,20.575,6.626
35.193,20.67,5.3
34.838,20.518,5.674
35.246,20.499,5.22
35.483,19.97,6.772
34.994,21.233,6.183
35.932,20.745,6.569
34.488,20.617,6.039
35.632,20.084,6.417
35.175,19.459,6.676
34.943,19.514,5.717
34.639,19.074,5.171
35.029,20.61,6.127
35.096,20.131,6.018
34.968,19.478,5.866
36.495,19.699,6.621
35.147,20.895,5.603
34.147,19.83,5.201
36.033,20.648,4.72
35.744,19.529,6.047
35.381,19.249,6.445
34.58,20.087,5.918
35.543,19.892,6.043
34.152,20.451,5.929
34.897,18.942,5.976
35.457,19.687,6.434
34.934,20.252,6.53
35.109,19.636,6.85
34.368,18.93,6.092
35.462,20.893,6.122
34.802,18.712,6.115
35.748,19.63,6.541
34.34,20.026,5.866
35.823,20.158,6.595
34.633,20.371,6.485
34.942,18.515,5.122
35.754,21.318,5.612
35.287,20.269,6.532
34.679,20.488,5.448
34.453,19.736,5.342
34.531,20.191,5.463
35.798,21.547,6.982
34.912,19.641,7.138
35.058,20.219,5.517
34.882,20.42,6.583
33.534,19.947,7.003
34.996,20.812,5.533
34.248,20.359,6.464
34.635,20.585,5.209
34.516,19.997,7.065
34.631,20.291,6.396
34.287,19.76,6.376
35.255,20.545,6.018
34.482,21.184,6.576
35.316,20.061,6.567
34.439,19.812,6.944
35.53,20.776,4.641
34.486,21.524,5.455
34.958,20.666,6.717
35.064,19.575,5.927
34.909,21.651,6.82
35.154,19.527,4.812
34.964,19.772,5.87
34.896,20.258,6.697
36.111,20.689,6.264
35.987,20.52,5.349
34.563,19.565,6.694
34.586,19.853,6.4
34.905,19.431,6.38
34.475,19.806,5.728
34.293,19.995,5.781
35.423,19.483,5.515
34.11,19.659,6.038
34.164,19.703,5.408
36.325,20.521,5.923
34.864,19.773,5.883
34.719,20.798,5.68
35.543,21.009,6.039
35.546,19.63,6.319
35.083,19.522,5.761
34.567,20.113,5.817
34.664,20.169,5.34
34.289,20.084,6.106
34.285,21.059,6.504
34.94,19.064,5.852
34.64,19.65,6.338
34.862,19.651,5.48
35.09,19.51,5.544
34.18,19.076,5.055
34.728,19.771,5.84
34.55,19.49,5.778
35.034,19.984,5.954
35.021,18.977,5.815
35.056,20.183,5.638
34.204,20.59,6.155
34.655,20.131,7.879
34.917,19.568,5.942
34.237,20.113,6.545
35.264,19.662,4.582
35.804,19.703,5.916
34.68,18.859,6.471
33.956,19.372,6.004
35.665,19.437,6.725
35.385,20.703,6.557
34.702,19.035,5.851
35.191,19.15,7.097
35.072,20.463,5.552
35.063,19.42,4.412
34.93,18.133,7.177
35.499,20.083,4.571
35.414,19.889,6.213
35.585,19.611,5.464
34.395,20.047,5.629
35.411,20.101,5.488
34.876,20.245,6.621
33.863,20.028,5.726
34.268,20.492,6.215
34.837,19.959,6.146
35.828,20.692,5.442
35.316,20.542,5.272
35.151,19.064,6.424
34.237,20.303,5.302
34.943,20.749,6.268
36.015,19.805,6.371
35.215,20.981,5.66
34.599,19.092,4.749
35.559,19.524,5.917
34.344,20.794,4.823
34.64,19.268,5.453
35.257,20.016,5.728
33.976,19.5,6.457
35.048,19.58,5.463
34.839,20.132,5.474
34.696,19.093,7.341
34.194,20.915,5.768
35.075,19.894,6.648
36.264,20.548,5.691
34.666,20.116,6.138
35.034,19.063,5.819
34.295,21.004,6.199
33.461,19.371,6.915
35.416,19.102,5.975
35.035,19.11,6.398
34.711,19.644,6.93
35.172,20.181,6.472
35.658,20.646,5.596
35.199,19.723,7.131
35.03,20.367,5.455
34.851,20.948,6.343
34.994,20.626,7.573
35.415,20.03,6.526
34.785,20.866,6.017
34.734,20.032,6.046
35.682,19.012,6.413
35.534,20.469,6.796
35.029,21.501,4.716
33.855,20.805,6.287
34.992,19.927,5.385
34.768,20.252,5.348
34.267,19.651,5.517
34.355,19.932,6.436
35.123,20.041,5.877
34.312,20.298,5.125
35.092,20.308,6.831
35.198,18.925,5.018
35.482,19.79,5.45
35.377,18.874,5.33
36.2,20.586,5.851
34.682,21.164,6.016
34.19,21.065,6.46
34.249,19.725,5.022
34.959,20.361,5.443
34.253,20.367,5.903
35.022,19.845,6.411
35.201,20.884,6.365
35.661,18.571,6.371
34.606,20.136,6.135
